0.0035 0.0075 0.0018
0.0006 -0.0067 0.0000
0.0062 -0.0015 0.0123
0.0046 -0.0016 0.0097
0.0024 0.0076 0.0037
0.0054 0.0012 0.0068
0.0017 -0.0096 0.0043
0.0020 -0.0205 0.0262
0.0006 -0.0114 0.0110
0.0096 -0.0060 0.0085
0.0012 0.0061 0.0006
0.0100 -0.0232 0.0218
-0.0038 0.0037 0.0033
0.0030 -0.0035 0.0010
0.0034 -0.0114 -0.0031
-0.0004 -0.0116 0.0173
0.0016 -0.0108 0.0028
-0.0008 -0.0028 0.0077
0.0079 -0.0050 0.0122
0.0014 -0.0071 0.0075
0.0058 -0.0100 0.0144
0.0001 -0.0167 0.0121
-0.0022 -0.0182 0.0112
0.0066 -0.0256 -0.0003
-0.0002 0.0013 0.0044
-0.0022 -0.0105 0.0028
0.0221 -0.1088 0.0379
0.0045 -0.1169 0.0301
0.0475 -0.0983 0.0736
0.0422 -0.1048 0.0627
0.0128 -0.1034 0.0502
0.0691 -0.1376 0.0715
0.0143 -0.1354 0.0437
0.0014 -0.1051 0.0292
0.0054 -0.0047 0.0081
-0.0034 -0.0847 0.0248
0.0174 -0.1046 0.0384
0.0187 -0.0897 0.0376
0.0191 -0.1526 0.0539
0.0007 -0.1124 0.0302
0.0274 -0.0705 0.0724
0.0873 -0.1658 0.0855
0.0311 -0.0594 0.0851
0.0140 -0.0976 0.0352
0.0054 -0.1144 0.0370
0.0157 -0.1390 0.0370
0.0137 -0.1355 0.0337
0.0379 -0.3865 0.0291
0.0775 -0.1167 0.1048
0.0031 0.0020 0.0083
0.2868 -0.2851 0.5095
0.3519 -0.2803 0.6769
0.2386 -0.2844 0.4540
0.2843 -0.2881 0.5576
0.3526 -0.2802 0.6988
0.2288 -0.2804 0.4554
0.1976 -0.2705 0.4683
0.3032 -0.3009 0.7017
0.0974 -0.0975 0.3070
0.0993 -0.2387 0.3514
0.2509 -0.2973 0.7580
0.2139 -0.2946 0.7223
0.1515 -0.2724 0.5651
0.0738 -0.2442 0.3609
0.0636 -0.2502 0.3292
0.0758 -0.2895 0.3813
0.1673 -0.2815 0.7451
0.0253 -0.2776 0.3288
0.1295 -0.2867 0.7069
0.0039 -0.2557 0.3039
-0.0148 -0.2583 0.2636
-0.0262 -0.2542 0.3281
0.0391 -0.2931 0.8630
-0.0465 -0.1950 0.3315
-0.3539 -0.9304 0.5248
0.3270 -0.2874 0.6578
0.2967 -0.2966 0.5870
0.2782 -0.2935 0.5567
0.2958 -0.2841 0.7066
0.1008 -0.1901 0.3038
0.1587 -0.3038 0.6166
0.1763 -0.2750 0.7644
0.0128 -0.2572 0.2971
0.0656 -0.2469 0.5297
-0.0022 -0.2356 0.3078
0.0451 -0.2909 0.7382
-0.0111 -0.2563 0.2263
-0.1610 -0.2880 0.2801
-0.1430 -0.2752 0.3543
-0.1595 -0.2904 0.2744
-0.1479 -0.2727 0.2763
-0.1323 -0.2600 0.3450
-0.1547 -0.2927 0.2698
-0.1475 -0.2859 0.2699
-0.1420 -0.2880 0.2691
-0.0964 -0.2229 0.3874
-0.1167 -0.2650 0.3341
-0.1104 -0.2627 0.3174
-0.1092 -0.2787 0.2763
-0.1059 -0.2717 0.2557
-0.1095 -0.2874 0.2552
-0.0966 -0.2823 0.3013
-0.0779 -0.2350 0.3190
-0.0840 -0.2813 0.3854
-0.0934 -0.2607 0.2763
-0.1098 -0.3061 0.2649
-0.0659 -0.2474 0.3781
-0.1004 -0.3025 0.2779
-0.0602 -0.2350 0.3759
-0.0679 -0.2478 0.3434
-0.0631 -0.2375 0.3509
-0.0820 -0.2686 0.2930
-0.0627 -0.2745 0.3825
-0.0811 -0.2420 0.2447
-0.0827 -0.2704 0.2757
-0.0806 -0.2689 0.2812
-0.0507 -0.2803 0.4398
-0.0815 -0.2686 0.2557
-0.0726 -0.2276 0.2435
-0.0718 -0.2452 0.2661
0.1485 -0.3105 0.3047
-0.0581 -0.2342 0.3095
-0.0577 -0.2193 0.2980
0.1645 -0.2694 0.3613
0.1643 -0.2824 0.3554
0.1941 -0.2824 0.4220
-0.0748 -0.2668 0.2567
0.1310 -0.2835 0.2959
-0.0711 -0.2954 0.3140
-0.0646 -0.2748 0.2884
-0.0354 -0.2461 0.3799
-0.0699 -0.2767 0.2631
-0.0608 -0.2795 0.2753
-0.0570 -0.2528 0.2512
-0.0407 -0.2426 0.2930
-0.0354 -0.2304 0.2810
-0.0346 -0.2456 0.2931
-0.0425 -0.2499 0.2586
-0.0324 -0.2653 0.3138
-0.0534 -0.2900 0.2421
-0.0096 -0.2681 0.3795
-0.0405 -0.2379 0.2406
-0.0079 -0.2865 0.3736
-0.0163 -0.2725 0.3436
-0.0178 -0.2642 0.3173
-0.0121 -0.2700 0.3511
-0.0411 -0.2799 0.2520
-0.0266 -0.2736 0.2931
-0.0401 -0.2847 0.2401
-0.0246 -0.2593 0.2748
-0.0175 -0.2414 0.2869
-0.0363 -0.2908 0.2347
-0.0162 -0.2418 0.2551
-0.0269 -0.2845 0.2365
-0.0126 -0.2771 0.2721
-0.0009 -0.2575 0.2904
0.0080 -0.2481 0.3084
0.1039 -0.2865 0.3283
0.0036 -0.2757 0.2736
0.0043 -0.2506 0.2356
0.0959 -0.2405 0.4932
0.0722 -0.2860 0.2839
0.0244 -0.2827 0.2917
0.0440 -0.2692 0.3419
0.0189 -0.2514 0.2569
0.0211 -0.2877 0.2570
0.0583 -0.2552 0.3372
0.0885 -0.2427 0.4175
0.0455 -0.2215 0.2899
0.0376 -0.2774 0.2563
0.0677 -0.2458 0.3222
0.0569 -0.2254 0.2936
0.0896 -0.2816 0.3628
0.0693 -0.2803 0.3196
-0.0565 -0.2851 0.5153
-0.0840 -0.2740 0.3185
-0.0654 -0.2480 0.3359
0.2991 -0.2795 0.5779
0.0492 -0.2628 0.3197
0.0212 -0.0892 0.2704
0.2444 -0.2816 0.4955
0.2025 -0.3346 0.3901
-0.0740 -0.2757 0.2792
-0.0604 -0.2961 0.3461
0.1411 -0.2832 0.4543
-0.0333 -0.2612 0.3784
0.2049 -0.2881 0.4689
-0.0502 -0.2408 0.2722
-0.0450 -0.2752 0.2859
0.1994 -0.2904 0.5751
-0.0089 -0.2691 0.4043
0.1220 -0.2424 0.3551
0.1454 -0.2849 0.3987
-0.0287 -0.2512 0.2653
-0.0045 -0.2462 0.3348
0.0140 -0.2282 0.3592
-0.0108 -0.2758 0.2532
0.0897 -0.2709 0.5584
0.0052 -0.2643 0.2879
0.1318 -0.2668 0.4015
-0.0047 -0.2970 0.2786
-0.0778 -0.2649 0.3009
0.1640 -0.2913 0.4574
0.1626 -0.2741 0.4863
0.0842 -0.2318 0.3636
-0.0903 -0.2677 0.3181
-0.0896 -0.2674 0.3228
0.0962 -0.1976 0.2679
0.1483 -0.2725 0.4003
0.0209 -0.2773 0.2849
0.0895 -0.2678 0.3477
0.0589 -0.2781 0.2740
0.2312 -0.3019 0.5789
0.1243 -0.2471 0.5144
0.0392 -0.2911 0.2822
0.0324 -0.2694 0.2930
0.0049 -0.2396 0.4099
-0.0287 -0.0976 0.2174
-0.0178 -0.2343 0.3906
-0.0651 -0.2163 0.3110
-0.1156 -0.2542 0.3446
0.0119 -0.2377 0.2605
0.0115 -0.1189 0.0318
-0.0076 0.0319 0.2101
0.0832 -0.1964 0.3969
0.0375 -0.2021 0.4631
-0.0543 -0.2504 0.4176
0.0388 -0.1905 0.5652
0.0342 -0.2465 0.5778
0.0240 -0.2639 0.6374
-0.0651 -0.2568 0.5594
0.1179 -0.2295 0.3791
0.1561 -0.2215 0.5327
0.0799 -0.0638 0.3293
0.0812 -0.1634 0.5021
0.0475 -0.2374 0.5671
0.0598 -0.2420 0.2569
0.0665 -0.2515 0.2547
0.1227 -0.2374 0.3655
-0.0236 -0.2691 0.3909
0.0194 -0.2532 0.3652
0.1155 -0.2353 0.3576
0.1165 -0.2261 0.3907
0.0227 -0.2468 0.3469
0.0649 -0.2188 0.3055
0.0085 -0.2687 0.3807
0.0031 -0.2473 0.5519
0.0759 -0.2530 0.4074
0.1670 -0.2235 0.4321
0.1273 -0.2222 0.3717
0.1157 -0.2085 0.3576
0.0895 -0.2321 0.3094
0.0706 -0.2605 0.2735
0.0806 -0.2286 0.3307
0.0663 -0.2559 0.3079
0.1022 -0.2361 0.3925
0.0815 -0.2616 0.3971
0.1230 -0.2105 0.4927
0.0607 -0.2629 0.3946
0.0303 -0.2552 0.3646
0.0280 -0.2425 0.4275
0.1371 -0.2008 0.3971
0.1574 -0.2180 0.4963
0.0878 -0.2435 0.4040
0.0413 -0.2494 0.3873
0.0252 -0.2304 0.4514
0.0278 -0.2652 0.3423
0.0238 -0.2337 0.2232
0.0504 -0.2274 0.2434
0.0292 -0.2624 0.2150
0.0299 -0.2488 0.2194
0.0365 -0.2224 0.2531
0.0423 -0.2453 0.2405
0.0188 -0.2433 0.2217
0.0089 -0.2502 0.3074
0.0391 -0.2518 0.2144
0.0392 -0.2518 0.2205
0.0369 -0.2444 0.2326
0.0396 -0.2475 0.2462
-0.0861 -0.2171 0.3314
-0.0833 -0.2320 0.3546
0.0356 -0.2436 0.2568
0.0148 -0.2527 0.2146
0.0215 -0.2295 0.2362
0.0136 -0.2456 0.2210
0.0199 -0.2699 0.2559
0.0138 -0.2336 0.2456
0.0060 -0.2336 0.2385
-0.0721 -0.2215 0.3007
-0.0976 -0.2729 0.2528
-0.0738 -0.2334 0.2823
-0.0795 -0.2443 0.2558
-0.0134 -0.2496 0.2239
0.0244 -0.2503 0.3193
-0.0703 -0.2587 0.2740
0.0165 -0.2376 0.3145
-0.0143 -0.2254 0.2424
-0.0594 -0.2369 0.2916
-0.0538 -0.2423 0.3088
0.0043 -0.2340 0.2968
0.0000 -0.2443 0.2855
-0.0111 -0.2476 0.2657
-0.0579 -0.2412 0.2787
-0.0332 -0.2717 0.2315
0.0002 -0.2576 0.4249
-0.0519 -0.2370 0.2617
-0.0222 -0.2371 0.2692
-0.0351 -0.2472 0.2425
-0.0277 -0.2413 0.2623
-0.0037 -0.2468 0.3337
-0.0087 -0.2475 0.3678
-0.0108 -0.2378 0.3363
-0.0015 -0.2458 0.2208
-0.0532 -0.2214 0.3391
-0.1028 -0.2637 0.2580
0.0795 -0.2708 0.2183
0.0588 -0.2522 0.2118
0.0733 -0.2484 0.2390
-0.1456 -0.2160 0.2605
-0.1303 -0.2294 0.3191
-0.1277 -0.2305 0.3366
-0.1532 -0.2585 0.2815
-0.1297 -0.2187 0.2593
-0.1367 -0.2467 0.2692
-0.1428 -0.2650 0.2629
-0.1369 -0.2625 0.2642
-0.0849 -0.2319 0.2533
-0.0827 -0.2459 0.2709
-0.0762 -0.2047 0.2579
-0.0849 -0.2394 0.2742
-0.0844 -0.2287 0.2678
-0.0119 -0.0965 0.1942
-0.1062 -0.2527 0.3122
-0.1027 -0.2284 0.2965
-0.0094 -0.2446 0.2469
-0.0808 -0.2163 0.2822
-0.1013 -0.2475 0.2713
-0.0780 -0.2188 0.3047
-0.0016 -0.2491 0.2316
-0.1178 -0.2363 0.2690
-0.0137 -0.2362 0.2814
-0.1068 -0.2051 0.3119
0.0661 -0.2451 0.2365
0.0507 -0.2373 0.2137
0.0044 -0.0444 0.2262
-0.0908 -0.2596 0.3059
-0.0751 -0.2306 0.3291
-0.1068 -0.2287 0.3328
0.0198 -0.2460 0.5808
0.0275 -0.3230 0.7170
-0.0722 -0.2377 0.5658
-0.0180 -0.2554 0.2315
-0.0515 -0.2560 0.2346
-0.0518 -0.2467 0.2399
-0.0585 -0.2410 0.2414
0.1147 -0.2561 0.2666
0.1247 -0.2597 0.2882
0.0931 -0.2580 0.2525
0.0807 -0.2469 0.2375
0.0790 -0.2419 0.2432
0.0780 -0.2460 0.2495
0.0438 -0.2583 0.3364
-0.0332 -0.2771 0.3837
-0.0501 -0.2941 0.4412
-0.1101 -0.1995 0.3404
-0.0342 -0.2371 0.2521
-0.0340 -0.2305 0.2463
-0.1168 -0.2159 0.3183
-0.1446 -0.2677 0.2600
-0.0437 -0.0682 0.3776
-0.0154 -0.2522 0.3484
0.1353 -0.2160 0.5186
-0.0961 -0.2536 0.2650
-0.0742 -0.2287 0.2761
0.0847 -0.2603 0.3165
-0.0762 -0.2120 0.5256
-0.0233 -0.2431 0.2490
-0.0833 -0.2484 0.3056
-0.0726 -0.2363 0.2831
-0.0236 -0.2856 0.2259
-0.1259 -0.1991 0.2582
-0.1316 -0.2705 0.2571
-0.2306 -0.3016 0.3549
0.0986 -0.3066 0.6085
0.0397 -0.3062 0.5133
-0.0339 -0.2592 0.3740
0.0292 -0.2957 0.6818
-0.1657 -0.2784 0.3909
-0.1520 -0.2760 0.6150
-0.1737 -0.2661 0.3408
-0.1180 -0.2447 0.3408
-0.0260 -0.2602 0.3074
-0.0585 -0.2639 0.3784
-0.1312 -0.2820 0.3528
-0.1085 -0.2615 0.3806
0.0704 -0.2901 0.5098
-0.0705 -0.3014 0.6077
-0.0807 -0.2850 0.6211
-0.1983 -0.2827 0.3415
-0.1552 -0.2614 0.8179
-0.2971 -0.2732 0.6006
-0.2220 -0.2865 0.4180
-0.1657 -0.2530 0.6674
0.1046 -0.2444 0.6087
0.0772 -0.2767 0.5602
0.0344 -0.2891 0.5200
-0.1599 -0.2504 0.4266
-0.2761 -0.2446 0.5418
0.0046 -0.3283 0.4777
0.0049 -0.2652 0.3843
-0.0971 -0.2637 0.6595
0.2444 -0.2881 0.8148
0.1124 -0.2675 0.5663
-0.0673 -0.2709 0.6083
0.0310 -0.2590 0.8112
-0.0208 -0.2808 0.5789
0.0074 -0.2735 0.3828
0.0033 -0.2769 0.5915
0.1161 -0.2776 0.6132
0.0656 -0.2755 0.5073
-0.0167 -0.2542 0.3586
0.0193 -0.2761 0.4491
0.1041 -0.2808 0.7033
0.1270 -0.2797 0.7040
0.1557 -0.2657 0.7561
-0.0043 -0.2728 0.4024
-0.2504 -0.3109 0.4280
0.0501 -0.2701 0.5823
0.0723 -0.2746 0.5474
-0.0038 -0.2713 0.4641
-0.1549 -0.2591 0.4106
-0.0326 -0.2790 0.4504
0.1136 -0.2722 0.6828
-0.0916 -0.2367 0.6048
0.0738 -0.2768 0.5926
-0.0555 -0.2837 0.6664
0.0124 -0.2727 0.6218
0.0585 -0.2691 0.4747
-0.1175 -0.2675 0.3633
-0.0909 -0.2601 0.4043
0.1077 -0.2881 0.5768
0.0883 -0.2755 0.5465
-0.0251 -0.2977 0.7635
-0.1962 -0.2591 0.5100
0.0224 -0.2699 0.4764
0.0247 -0.2845 0.4424
-0.0031 -0.2703 0.3943
-0.0238 -0.2787 0.3510
0.0950 -0.2601 0.8248
-0.1442 -0.2590 0.4570
-0.2413 -0.2320 0.4158
-0.0367 -0.1945 0.2488
0.1715 -0.2571 1.0079
0.2696 -0.2840 0.9827
-0.1704 -0.2622 0.7526
0.1621 -0.2687 0.8595
0.2214 -0.2642 1.0138
0.1819 -0.2795 0.8058
0.0533 -0.2806 0.8663
-0.1712 -0.2636 0.7057
-0.2377 -0.2384 0.4875
0.0058 -0.2817 0.4106
0.0747 -0.2650 0.5611
-0.0057 -0.2861 0.3993
0.0495 -0.2743 0.5344
0.0658 -0.3002 0.4962
0.0064 -0.2887 0.5132
-0.0559 -0.2779 0.4148
-0.0094 -0.2733 0.3405
-0.0520 -0.2685 0.4024
-0.0592 -0.2627 0.4185
-0.0082 -0.2815 0.3879
-0.0626 -0.2751 0.3592
0.2956 -0.2886 1.0102
0.1670 -0.2880 0.9870
-0.1040 -0.2827 0.3826
0.0018 -0.2835 0.3928
-0.0128 -0.2911 0.3369
-0.0079 -0.2881 0.3945
0.0247 -0.2749 0.4447
0.0924 -0.2770 0.5781
-0.0344 -0.2850 0.3516
0.0368 -0.2752 0.5691
-0.0657 -0.2610 0.3634
-0.1810 -0.3828 0.4507
0.0995 -0.2807 1.0398
0.0251 -0.2193 1.0505
-0.0233 -0.2877 0.4061
-0.0609 -0.2836 0.3860
-0.0183 -0.2853 0.3645
0.1333 -0.2940 0.6283
-0.0198 -0.2620 0.3479
-0.0316 -0.2942 0.3471
0.0020 -0.2758 0.5651
0.1850 -0.2922 1.1028
0.1020 -0.3176 1.0652
0.0166 -0.2823 0.6531
0.0637 -0.2624 1.1264
-0.1014 -0.2855 0.4157
0.1057 -0.2857 0.8053
0.0055 -0.2889 0.4581
-0.0579 -0.2814 0.4387
-0.0921 -0.2605 0.3761
-0.1287 -0.2653 0.3968
-0.0197 -0.2873 0.4117

